ply
format ascii 1.0
element vertex 687
property float x
property float y
property float z
property uchar red
property uchar green
property uchar blue
end_header
0.7234781980514526 -0.005565217230468988 2.2260868549346924 164 179 174
0.03684210777282715 0.17894737422466278 2.1052632331848145 162 174 171
-0.28218695521354675 -0.05079365149140358 2.257495641708374 128 143 138
-0.2216450273990631 0.03324675187468529 2.2164502143859863 140 157 151
-0.20222032070159912 0.049188725650310516 2.1861655712127686 149 162 158
-0.0411386601626873 -0.3291092813014984 2.350780487060547 181 192 188
0.7684390544891357 -0.027444252744317055 2.195540189743042 174 191 194
0.19368420541286469 -0.44631579518318176 1.6842105388641357 122 125 119
0.4723438620567322 0.21800485253334045 2.0762367248535156 74 89 86
0.5243373513221741 0.2673092186450958 2.056224822998047 115 139 135
0.6240000128746033 0.19733335077762604 2.133333444595337 163 187 188
-0.36634865403175354 0.011101474985480309 2.220294952392578 103 112 109
-0.08120539784431458 0.38065028190612793 2.030134916305542 142 159 153
0.4452599585056305 -0.4403669834136963 1.9571865797042847 126 135 132
-0.3575708568096161 0.3420242965221405 2.0728745460510254 107 120 112
0.3729729652404785 -0.4216215908527374 2.1621620655059814 141 152 148
0.010102604515850544 -0.4243094027042389 2.0205209255218506 138 141 132
0.7697980403900146 -0.13485513627529144 2.2475855350494385 168 182 184
0.029411766678094864 -0.3529411852359772 2.3529412746429443 182 198 195
-0.4243335723876953 0.41995900869369507 1.7498291730880737 118 106 85
-0.41558441519737244 0.0 1.8470418453216553 173 155 135
-0.3291139304637909 0.6025316715240479 2.0253164768218994 139 154 150
0.5239479541778564 0.4651874303817749 1.958683967590332 89 108 106
0.7675485014915466 -0.1975308656692505 2.257495641708374 167 181 181
0.6568421125411987 0.46315789222717285 1.6842105388641357 177 201 201
-0.41701358556747437 -0.21429865062236786 2.316742181777954 47 50 41
0.2787555754184723 -0.3868444561958313 2.2755556106567383 210 234 230
0.4820083677768707 0.06426778435707092 2.142259359359741 96 112 106
0.6610526442527771 0.4126315712928772 1.6842105388641357 113 127 133
0.6073411107063293 -0.25210386514663696 2.291853189468384 141 155 150
0.615220308303833 0.3375166952610016 1.7089452743530273 164 183 184
-0.1171381026506424 0.17038269340991974 2.1297836303710938 192 198 196
-0.23900416493415833 0.2549377679824829 2.124481439590454 179 185 183
0.6804460883140564 -0.4139776825904846 1.9033457040786743 146 157 153
0.5487179756164551 -0.43589746952056885 2.0512821674346924 134 145 141
0.5702970027923584 -1.0319660902023315 3.6209335327148438 117 120 118
0.6430379748344421 0.4253164529800415 2.0253164768218994 161 178 181
-0.40904131531715393 -0.21449726819992065 1.9953234195709229 102 86 71
0.02222222276031971 -0.06111111491918564 2.222222328186035 126 141 137
0.48477429151535034 0.46029072999954224 1.958683967590332 76 93 89
0.28744271397590637 -0.3343721330165863 2.346471071243286 172 187 182
-0.45946335792541504 0.14851340651512146 1.8564176559448242 172 152 128
0.6166112422943115 0.22857141494750977 2.1262457370758057 165 189 193
-0.37142857909202576 -0.06666667014360428 1.9047619104385376 184 189 188
-0.16369636356830597 0.2165016531944275 2.112211227416992 160 174 169
-0.1644979864358902 0.3341365456581116 2.056224822998047 155 169 164
-0.3817378580570221 -0.07069219648838043 1.8851251602172852 111 103 84
-0.030070478096604347 0.43602192401885986 2.0046985149383545 146 165 161
0.14836131036281586 0.3274180591106415 2.04636287689209 142 157 156
0.3290215730667114 0.19104477763175964 2.1227197647094727 178 195 199
0.08533333986997604 -0.4166274666786194 2.007843255996704 138 145 137
0.7599999904632568 -0.05000000074505806 2.0 202 222 233
-0.11482059210538864 0.5042121410369873 1.9968798160552979 171 191 184
0.23157894611358643 0.4000000059604645 1.6842105388641357 8 15 11
-0.12340052425861359 -0.08974583446979523 2.2436459064483643 118 129 125
-0.41054481267929077 0.0 2.249560594558716 59 65 57
0.15815486013889313 0.19505766034126282 2.108731508255005 145 159 154
0.5833333730697632 0.0055555556900799274 2.222222328186035 164 182 185
0.5082657933235168 0.22301457822322845 2.074554204940796 114 139 135
0.7141868472099304 0.005536332260817289 2.2145328521728516 164 181 175
-0.3469255864620209 0.4297734797000885 2.071197509765625 132 147 141
-0.052844032645225525 -0.3229357600212097 2.348623752593994 179 190 186
0.24508269131183624 -0.3397737443447113 2.228024482727051 177 196 193
-0.20765390992164612 0.19168052077293396 2.1297836303710938 177 186 183
0.5357686281204224 0.4968036413192749 1.9482495784759521 75 94 91
0.5035681128501892 -0.2517840564250946 2.342177391052246 155 171 162
0.03789473697543144 -0.437894731760025 1.6842105388641357 128 129 124
0.47191381454467773 0.12725766003131866 2.1209609508514404 78 91 90
0.49392443895339966 0.18916255235671997 2.101806163787842 107 126 122
-0.111111119389534 -0.03888889029622078 2.222222328186035 128 137 138
-0.1006113588809967 -0.08384279906749725 2.2358078956604004 122 132 131
-0.06910298764705658 0.20730896294116974 2.1262457370758057 151 166 161
0.6652631759643555 0.3494736850261688 1.6842105388641357 25 30 30
-0.4217926263809204 0.016871703788638115 2.249560594558716 240 246 243
0.3515879809856415 -0.027467811480164528 2.19742488861084 113 137 141
-0.4531864523887634 -0.09567269682884216 2.014162063598633 176 155 139
0.593684196472168 0.1599999964237213 1.6842105388641357 153 171 174
0.1822064071893692 -0.250533789396286 2.2775800228118896 184 197 195
0.11832797527313232 0.2520900368690491 2.057877779006958 146 159 158
0.7635258436203003 -0.23343464732170105 1.9452887773513794 154 171 165
-0.38019800186157227 -0.19984766840934753 1.9497333765029907 63 53 44
-0.14845360815525055 0.03848797082901001 2.199312686920166 172 182 182
0.34507161378860474 0.05391743779182434 2.1566975116729736 177 187 195
0.7697980403900146 -0.06742756813764572 2.2475855350494385 177 193 193
0.34787458181381226 0.2497560977935791 1.783972144126892 14 26 22
-0.18921738862991333 -0.033391304314136505 2.2260868549346924 146 157 153
0.031578946858644485 0.18421053886413574 2.1052632331848145 169 181 177
0.46027398109436035 -0.3397260308265686 2.1917808055877686 172 188 187
0.06731780618429184 0.5096919536590576 1.923365831375122 50 62 58
0.6037735342979431 0.07135505974292755 2.195540189743042 165 183 185
0.5075125694274902 0.10150250792503357 2.136894941329956 124 142 136
-0.02043096534907818 0.3626496493816376 2.0430965423583984 138 157 154
0.2778947353363037 0.4000000059604645 1.6842105388641357 24 33 29
-0.43925875425338745 0.3118737041950226 1.7570350170135498 135 124 99
0.41528889536857605 -0.18204444646835327 2.2755556106567383 73 82 79
-0.1211356371641159 0.44921132922172546 2.0189273357391357 178 196 191
-0.1653333455324173 0.1706666797399521 2.133333444595337 162 174 170
-0.3140053451061249 -0.07992862910032272 2.283675193786621 115 126 122
0.7355223894119263 -0.40597012639045715 1.9104477167129517 141 152 148
0.4908124506473541 0.5151100754737854 1.9438116550445557 69 88 84
-0.30148759484291077 0.290909081697464 2.1157023906707764 162 175 171
0.1682826578617096 0.22612982988357544 2.1035332679748535 137 152 148
-0.3751724064350128 0.2427586168050766 1.765517234802246 184 182 186
0.34275680780410767 -0.14609305560588837 2.2475855350494385 102 108 106
0.7344262003898621 -0.2856101989746094 2.3315117359161377 142 155 150
-0.09263157844543457 -0.43368420004844666 1.6842105388641357 132 133 127
0.004996096715331078 0.45964089035987854 1.9984387159347534 181 196 195
0.11687362939119339 0.4394448399543762 1.8699780702590942 70 82 71
-0.4486598074436188 0.1363573968410492 1.7594501972198486 176 152 128
0.7595711946487427 -0.1421133279800415 1.9601837396621704 170 185 190
-0.0568888895213604 -0.13653333485126495 2.2755556106567383 133 139 131
0.5822629928588867 -0.4305810332298279 1.9571865797042847 130 141 137
-0.11890144646167755 0.3205169439315796 2.0678513050079346 184 199 195
0.10378378629684448 -0.26522523164749146 2.3063063621520996 175 189 184
0.42139917612075806 0.21069958806037903 2.1069958209991455 120 142 146
-0.23388703167438507 0.22857141494750977 2.1262457370758057 182 188 186
-0.06725043803453445 -0.08406305313110352 2.2416813373565674 141 152 148
0.22557376325130463 -0.424917995929718 2.098360538482666 139 149 140
-0.14436089992523193 0.16040100157260895 2.1386799812316895 179 190 186
-0.3825386166572571 0.36534586548805237 1.719274640083313 58 61 55
0.35505619645118713 0.2426966428756714 1.797752857208252 12 23 19
0.5628664493560791 0.29706841707229614 2.084690570831299 222 251 247
-0.08690096437931061 0.342492014169693 2.0447285175323486 145 160 157
0.18921738862991333 -0.06678260862827301 2.2260868549346924 128 146 149
0.5321239829063416 0.5176115036010742 1.934996247291565 74 92 90
0.5860615372657776 -0.41491085290908813 2.074554204940796 140 149 146
0.31632834672927856 -0.1977052092552185 2.259488105773926 43 49 45
-0.4135095477104187 0.06578560918569565 1.8795888423919678 166 154 132
0.45052632689476013 -0.437894731760025 1.6842105388641357 121 127 125
0.26256412267684937 0.0 2.1880342960357666 134 152 155
-0.4930232763290405 0.01860465109348297 1.860465168952942 206 167 144
-0.22509992122650146 0.43485212326049805 2.04636287689209 189 201 197
0.15018050372600555 -0.3754512667655945 2.310469388961792 213 238 234
0.17058824002742767 -0.3176470696926117 2.3529412746429443 171 186 181
-0.01756633073091507 -0.36303749680519104 2.342177391052246 225 243 245
-0.4494812488555908 -0.19409416615962982 2.0430965423583984 113 97 88
0.761556088924408 -0.2929061949253082 1.9527078866958618 146 161 156
-0.12631578743457794 -0.43368420004844666 1.6842105388641357 132 133 129
-0.3154121935367584 -0.12616488337516785 2.2939069271087646 103 109 107
-0.2844444513320923 -0.06257777661085129 2.2755556106567383 127 138 134
0.17142857611179352 -0.37714287638664246 2.2857143878936768 211 237 233
0.7609755992889404 -0.31707316637039185 1.9512195587158203 145 159 154
0.6868292689323425 -0.39024388790130615 2.081300735473633 161 176 171
0.3321020305156708 -0.19700968265533447 2.2515392303466797 53 59 58
0.5688889026641846 -0.3868444561958313 2.2755556106567383 168 183 180
-0.19393938779830933 0.27780506014823914 2.096642017364502 171 183 179
0.35164836049079895 -0.29890111088752747 2.344322443008423 164 179 174
-0.19662058353424072 -0.43256527185440063 1.9662058353424072 145 145 139
0.19836868345737457 0.25579118728637695 2.0880913734436035 161 175 178
-0.17000000178813934 0.4650000035762787 2.0 175 192 186
0.7609755992889404 -0.019512195140123367 1.9512195587158203 196 214 226
0.31757408380508423 0.2602343261241913 1.7643004655838013 23 33 28
-0.18550723791122437 0.31433171033859253 2.0611915588378906 167 179 175
-0.35586443543434143 -0.016681145876646042 2.2241528034210205 100 109 106
-0.1962127983570099 -0.2423805147409439 2.3083858489990234 200 212 208
-0.1703004240989685 0.0 2.19742488861084 143 154 149
0.06736841797828674 -0.43368420004844666 1.6842105388641357 127 128 123
0.6613150835037231 0.06011955440044403 2.1861655712127686 162 179 173
0.18471986055374146 0.07606112211942673 2.1731748580932617 161 175 176
-0.4428691864013672 0.1944303661584854 2.160337448120117 244 245 247
-0.1992882490158081 -0.1423487514257431 2.2775800228118896 124 134 125
0.4473118484020233 -0.4301075339317322 1.7204301357269287 123 129 127
0.25989848375320435 0.39912980794906616 1.8564176559448242 13 22 18
0.648421049118042 0.30315789580345154 1.6842105388641357 21 27 26
-0.1367296576499939 0.26820048689842224 2.1035332679748535 182 193 191
-0.1144634559750557 0.5125972032546997 1.990668773651123 176 194 188
-0.06933333724737167 0.17600001394748688 2.133333444595337 155 166 162
0.4465116262435913 -0.4513128399848938 1.9204801321029663 123 132 129
0.47135841846466064 0.19378069043159485 2.094926357269287 74 89 84
0.501960813999176 -0.4199095070362091 1.930618405342102 130 141 137
0.5631216168403625 0.4651874303817749 1.958683967590332 200 231 234
0.7749999761581421 0.1599999964237213 2.0 236 248 246
0.5242124199867249 -0.25346535444259644 2.3042304515838623 140 156 146
-0.3761499226093292 0.13083475828170776 2.18057918548584 144 154 146
-0.17777778208255768 -0.21218639612197876 2.2939069271087646 59 72 66
-0.22796082496643066 -0.14247551560401917 2.2796082496643066 113 114 110
0.10261602699756622 0.04860759153962135 2.160337448120117 124 140 142
-0.22695036232471466 -0.07375887036323547 2.269503593444824 131 142 138
0.32211220264434814 0.2165016531944275 2.112211227416992 175 191 193
0.21408452093601227 -0.15774647891521454 2.253521203994751 95 100 95
-0.6232209205627441 -0.22172284126281738 2.397003650665283 151 153 148
0.6188557744026184 0.3764705955982208 2.062852621078491 171 192 203
0.27847328782081604 0.3615267276763916 1.9541984796524048 39 48 44
-0.28664496541023254 0.4429967403411865 2.084690570831299 174 192 186
-0.4243094027042389 0.5051302313804626 2.0205209255218506 71 73 69
-0.3899337649345398 0.4280794560909271 1.695364236831665 58 54 42
0.360627681016922 0.20085592567920685 1.8259629011154175 41 50 48
0.4113865792751312 -0.3114784061908722 2.350780487060547 160 175 170
0.7594860196113586 -0.12577475607395172 1.934996247291565 174 188 191
0.3321020305156708 -0.18012313544750214 2.2515392303466797 87 94 88
-0.2505531907081604 0.13072340190410614 2.1787233352661133 181 186 184
-0.03558379411697388 0.42192214727401733 2.0333597660064697 144 163 159
-0.24678663909435272 0.054841477423906326 2.1936590671539307 170 173 172
0.648421049118042 0.32842105627059937 1.6842105388641357 36 45 43
0.31578946113586426 0.45052632689476013 1.6842105388641357 44 52 41
-0.14511337876319885 0.46536359190940857 2.001563787460327 164 181 175
-1.1443709135055542 -0.7064017653465271 5.651214122772217 158 159 152
0.09879931062459946 -0.010977701283991337 2.195540189743042 122 140 142
0.39650958776474 -0.1284467726945877 2.2338569164276123 99 108 108
-0.07202572375535965 0.33954983949661255 2.057877779006958 146 161 156
0.03733333572745323 0.08533333986997604 2.133333444595337 153 164 162
0.590040385723114 0.25841185450553894 1.722745656967163 55 73 71
0.16129612922668457 -0.2707470655441284 2.3042304515838623 173 188 183
-0.03298969194293022 0.010996563360095024 2.199312686920166 147 161 161
-0.05000000074505806 -0.0277777798473835 2.222222328186035 148 157 154
0.5363709926605225 0.22392188012599945 2.082994222640991 50 69 67
0.7707078456878662 -0.01041497103869915 2.082994222640991 223 246 253
0.34362414479255676 0.08590603619813919 2.147650957107544 185 198 205
0.10402052849531174 0.005474764853715897 2.189905881881714 126 145 144
-0.21232227981090546 0.45497629046440125 2.0221168994903564 181 198 192
0.5795075297355652 0.406671941280365 2.0333597660064697 199 230 244
0.4295957386493683 0.5614035129547119 1.9527078866958618 93 119 118
-0.08503099530935287 -0.1473870575428009 2.26749324798584 126 135 126
-0.06023529917001724 0.46180394291877747 2.007843255996704 144 159 154
0.14315789937973022 -0.437894731760025 1.6842105388641357 125 126 119
-0.1974683552980423 -0.4303797483444214 2.0253164768218994 147 147 141
0.6095237731933594 0.340920090675354 2.0661823749542236 174 197 202
-0.06908249855041504 0.5230531692504883 1.973785638809204 142 162 155
-0.11438784748315811 -0.21733690798282623 2.28775691986084 65 74 67
0.6525939106941223 -0.25760287046432495 2.2898032665252686 142 157 151
0.3217235207557678 -0.27001795172691345 2.298025131225586 170 185 180
-0.3778175413608551 -0.09731663763523102 2.2898032665252686 90 98 95
0.20402684807777405 0.11812080442905426 2.147650957107544 177 191 194
-0.05133689567446709 -0.1711229830980301 2.281639814376831 105 112 106
0.7688146233558655 0.005091487895697355 2.036595106124878 211 232 251
-0.35382112860679626 0.34861788153648376 2.081300735473633 106 120 113
-0.3705790340900421 0.5758998394012451 2.0031299591064453 123 140 132
0.7673178911209106 -0.13641206920146942 2.2735345363616943 171 185 186
-0.03888889029622078 -0.0277777798473835 2.222222328186035 146 159 157
0.3967139720916748 -0.41105303168296814 1.911874532699585 130 139 136
-0.13876843452453613 -0.011101474985480309 2.220294952392578 130 144 144
0.02603742852807045 0.1978844553232193 2.082994222640991 172 183 180
0.678787887096405 0.10774411261081696 2.1548821926116943 165 184 180
-0.32306355237960815 0.0 2.228024482727051 115 127 123
0.139839768409729 0.39155134558677673 1.8645302057266235 138 156 153
0.7596747875213623 0.041626013815402985 2.081300735473633 218 242 244
0.7500761151313782 -0.3263317942619324 1.9482495784759521 146 159 155
0.7667220830917358 0.026622295379638672 2.1297836303710938 201 221 223
-0.19484777748584747 0.4946135878562927 1.9984387159347534 175 195 188
0.6293333768844604 0.18133334815502167 2.133333444595337 162 185 183
-0.3910817801952362 0.28538399934768677 2.113955497741699 173 180 174
0.10828138887882233 -0.2507569193840027 2.2796082496643066 180 195 190
0.3683069050312042 0.1281067579984665 2.1351125240325928 123 145 150
0.76756751537323 -0.07567567378282547 2.1621620655059814 210 227 231
0.18598291277885437 0.5962393283843994 2.1880342960357666 18 25 20
-0.33570218086242676 0.16785109043121338 2.165820598602295 122 134 130
-0.15446500480175018 0.33982300758361816 2.0595333576202393 156 171 166
-0.3693322241306305 0.2585325539112091 2.1104698181152344 129 140 133
-0.13180778920650482 0.5614035129547119 1.9527078866958618 162 182 175
-0.029583975672721863 0.5571648478507996 1.9722650051116943 140 160 153
-0.2154882252216339 0.12929293513298035 2.1548821926116943 175 186 182
0.3966941833496094 0.17983470857143402 2.1157023906707764 115 140 138
0.42892417311668396 -0.1636684387922287 2.257495641708374 79 87 84
0.4382791817188263 -0.14609305560588837 2.2475855350494385 74 85 81
-0.6313122510910034 -0.11004525423049927 2.316742181777954 199 167 147
0.7684487104415894 -0.16266432404518127 2.2436459064483643 170 184 184
0.30188679695129395 0.3251088559627533 1.8577648401260376 24 34 27
0.5303585529327393 0.31107571721076965 2.0398406982421875 105 128 124
-0.15900620818138123 -0.11357586085796356 2.271517276763916 135 146 142
0.7710843086242676 0.02203098125755787 2.2030980587005615 180 199 204
0.06592274457216263 -0.016480686143040657 2.19742488861084 160 173 171
0.43857866525650024 0.06497462093830109 2.165820598602295 86 107 113
-0.19891220331192017 0.5171717405319214 1.9891220331192017 173 191 185
0.5894736647605896 0.17263157665729523 1.6842105388641357 125 144 148
-0.36881354451179504 0.3861694931983948 1.7355931997299194 245 245 245
0.30611157417297363 -0.18706819415092468 2.26749324798584 81 88 83
0.6931990385055542 0.150461807847023 2.149454355239868 167 186 184
0.005714286118745804 -0.37714287638664246 2.2857143878936768 220 240 238
-0.4640218913555145 0.1794801652431488 1.7510260343551636 186 160 133
0.7448698282241821 -0.29402756690979004 1.9601837396621704 152 167 162
-0.368068665266037 0.054935622960329056 2.19742488861084 110 123 118
0.5567713379859924 -0.21811659634113312 2.295964241027832 140 155 151
0.3339606523513794 0.005474764853715897 2.189905881881714 120 142 147
0.12987013161182404 0.19740259647369385 2.0779221057891846 134 151 147
0.5439722537994385 0.0 2.220294952392578 218 244 252
0.0631060004234314 0.1893180012702942 2.1035332679748535 208 225 224
0.3316062092781067 -0.34818652272224426 2.2107081413269043 203 227 227
-0.36817625164985657 -0.47784578800201416 3.1334149837493896 219 227 230
0.20540539920330048 0.07027027010917664 2.1621620655059814 180 192 198
0.39418306946754456 0.021899059414863586 2.189905881881714 120 138 140
-0.3860662579536438 0.14681392908096313 2.175021171569824 168 174 166
-0.48872727155685425 0.0 1.8618181943893433 199 159 136
-0.48984262347221375 0.41659513115882874 1.83118736743927 136 116 90
0.269255667924881 0.30032363533973694 2.071197509765625 147 161 164
0.1139465868473053 0.42729970812797546 1.8991098403930664 26 33 24
0.42567673325538635 0.5345707535743713 1.9798917770385742 104 129 127
-0.41166791319847107 -0.04786836355924606 1.9147344827651978 180 161 147
0.06597938388586044 0.4442611634731293 1.7594501972198486 41 49 44
-0.24000000953674316 0.22933334112167358 2.133333444595337 179 184 182
-0.3913043439388275 0.2869565188884735 1.7391303777694702 135 128 102
0.0810810774564743 0.04324324056506157 2.1621620655059814 191 196 195
-0.2901333272457123 -0.07395555824041367 2.2755556106567383 128 139 135
0.29595378041267395 0.1955408900976181 2.113955497741699 150 167 166
0.5183098912239075 -0.3718309998512268 2.253521203994751 181 196 195
0.3834598958492279 0.07561180740594864 2.160337448120117 121 145 145
-0.38996416330337524 -0.06881720572710037 2.2939069271087646 89 96 95
0.6095238327980042 0.5224490165710449 1.934996247291565 162 185 187
-0.2770062983036041 -0.16735798120498657 2.3083858489990234 89 91 87
-0.448831170797348 -0.5485714077949524 3.3246753215789795 209 217 214
0.5235392451286316 -0.39532557129859924 2.136894941329956 150 163 159
0.0733686089515686 -0.3781305253505707 2.257495641708374 219 240 236
-0.41218453645706177 0.033420369029045105 2.228024482727051 58 61 58
-0.32995089888572693 0.4032733142375946 2.094926357269287 123 138 133
0.7688483595848083 -0.3923777639865875 2.1209609508514404 157 168 164
0.23765112459659576 -0.05526770278811455 2.2107081413269043 118 138 139
-0.4914485216140747 -0.5137870907783508 4.467713832855225 180 186 184
0.7590697407722473 -0.21829457581043243 1.9844961166381836 161 176 171
-0.035754188895225525 0.3984038233757019 2.0430965423583984 150 167 163
-0.23476873338222504 0.49505579471588135 2.0414671897888184 176 191 186
-0.4433470666408539 0.09657064825296402 1.755829930305481 179 158 133
0.1313113272190094 -0.2512042820453644 2.283675193786621 182 196 191
-0.19342222809791565 -0.1649777889251709 2.2755556106567383 112 119 112
-0.42574113607406616 0.1851048469543457 1.851048469543457 161 153 130
0.5384615659713745 -0.43589746952056885 2.0512821674346924 133 144 140
-0.09135180711746216 0.10209908336400986 2.149454355239868 144 155 151
-0.20000000298023224 -0.011111111380159855 2.222222328186035 144 155 152
0.2197183221578598 -0.21408452093601227 2.253521203994751 165 179 174
0.26625576615333557 0.3944529891014099 1.9722650051116943 12 23 18
0.6750830411911011 0.1754152774810791 2.1262457370758057 166 185 183
0.26458656787872314 0.3544461727142334 1.9968798160552979 25 29 30
0.22465305030345917 0.27689793705940247 2.0897958278656006 189 203 206
-0.13639342784881592 0.2885245680809021 2.098360538482666 175 190 185
0.621010422706604 0.39518845081329346 2.052927017211914 169 192 198
0.04015686362981796 0.41160786151885986 2.007843255996704 166 182 181
0.03720930218696594 0.13289035856723785 2.1262457370758057 158 170 170
-0.08480565249919891 -0.15265017747879028 2.261484146118164 122 131 122
-0.5724966526031494 -0.5297730565071106 3.4178905487060547 193 198 196
0.32438355684280396 0.2980822026729584 1.7534246444702148 33 43 36
-0.2748142182826996 0.3329479992389679 2.113955497741699 177 188 184
0.2748142182826996 0.18497110903263092 2.113955497741699 147 161 162
0.431281179189682 -0.4099833369255066 2.1297836303710938 145 157 153
0.17375566065311432 -0.2780090570449829 2.316742181777954 172 187 182
-0.4451383948326111 0.3270404636859894 1.8168914318084717 141 129 104
0.024242425337433815 -0.44121214747428894 1.9393939971923828 134 136 126
-0.6421404480934143 -0.620735764503479 4.280936241149902 177 180 179
0.6336106061935425 0.20232944190502167 2.1297836303710938 161 184 184
0.47887325286865234 -0.202816903591156 2.253521203994751 89 101 97
-0.24497605860233307 0.5103667974472046 2.0414671897888184 173 187 182
-0.2416994422674179 0.548859179019928 2.014162063598633 174 188 183
0.0706067755818367 0.3782505691051483 2.017336368560791 63 79 77
0.4870796501636505 -0.37380531430244446 2.265486717224121 189 205 204
0.4398104250431061 0.4296998381614685 2.0221168994903564 93 118 122
0.4923076927661896 -0.22898033261299133 2.2898032665252686 47 64 57
0.6188905239105225 0.5565217137336731 1.9190404415130615 145 169 165
0.3730224668979645 0.1545378863811493 2.131556987762451 124 144 151
0.15960100293159485 0.18088114261627197 2.1280133724212646 142 157 152
-1.3398663997650146 -0.684187114238739 5.701559066772461 150 152 143
0.6020553708076477 0.46039527654647827 2.0237154960632324 177 204 216
0.6526315808296204 0.2189473658800125 1.6842105388641357 73 89 86
0.08607594668865204 0.34936708211898804 2.0253164768218994 187 198 195
0.6568421125411987 0.45052632689476013 1.6842105388641357 182 206 207
-0.01764705963432789 -0.3235294222831726 2.3529412746429443 177 191 186
-0.253721684217453 0.4660194516181946 2.071197509765625 176 193 187
-0.08235294371843338 -0.3117647171020508 2.3529412746429443 177 188 184
-0.16468499600887299 -0.1078970730304718 2.271517276763916 135 146 142
0.29335370659828186 -0.43514132499694824 1.9556913375854492 127 133 131
-0.05190591886639595 0.2906731367111206 2.0762367248535156 156 171 166
0.7503448128700256 -0.36965516209602356 2.2068965435028076 166 179 176
0.31519201397895813 0.1549248844385147 2.136894941329956 154 171 172
-0.4000000059604645 0.45052632689476013 1.6842105388641357 106 96 77
-0.3124579191207886 0.2154882252216339 2.1548821926116943 145 159 154
0.31005483865737915 -0.2983546853065491 2.340036630630493 165 180 175
-0.31077390909194946 -0.44673749804496765 1.942336916923523 143 144 139
-0.3245220482349396 0.2926018238067627 2.1280133724212646 125 137 133
0.383783757686615 0.07027027010917664 2.1621620655059814 123 147 147
0.6624465584754944 0.04927288368344307 2.189905881881714 162 179 173
0.4152671694755554 0.5422900915145874 1.9541984796524048 99 124 120
-0.35840001702308655 0.3840000033378601 2.0480000972747803 111 127 119
0.6084305047988892 -0.24681615829467773 2.295964241027832 141 153 149
0.502967119216919 0.26688051223754883 2.052927017211914 107 132 128
0.6200398206710815 0.46715328097343445 1.6987391710281372 152 173 170
0.6189473867416382 0.18526315689086914 1.6842105388641357 122 149 152
0.5842323899269104 -0.39834028482437134 2.124481439590454 149 164 159
0.11144278943538666 0.11144278943538666 2.1227197647094727 182 192 193
-0.20165838301181793 0.20696517825126648 2.1227197647094727 168 180 176
-0.050043437629938126 -0.050043437629938126 2.2241528034210205 143 154 150
-1.0245614051818848 -0.6877192854881287 5.614035129547119 161 162 155
-0.005263158120214939 0.21052631735801697 2.1052632331848145 114 127 124
-0.05396289750933647 -0.4155143201351166 2.1585159301757812 155 156 150
0.6063157916069031 0.17263157665729523 1.6842105388641357 110 130 131
0.6189473867416382 0.31578946113586426 1.6842105388641357 47 62 65
-0.42400622367858887 -0.12969602644443512 1.9953234195709229 152 135 117
0.5193868279457092 -0.2539224326610565 2.3083858489990234 139 155 145
-0.36870163679122925 0.060533106327056885 2.2012038230895996 129 143 138
-0.1001647487282753 0.1686985194683075 2.108731508255005 183 191 188
0.7690756916999817 0.16672269999980927 2.1512606143951416 171 190 187
0.2750000059604645 -0.41499999165534973 2.0 133 142 132
-0.25902190804481506 -0.4155143201351166 2.1585159301757812 157 158 154
-0.4478260576725006 0.4956521689891815 1.7391303777694702 117 103 80
0.45553600788116455 -0.21933215856552124 2.249560594558716 66 80 73
0.025216704234480858 0.38833725452423096 2.017336368560791 166 181 180
-0.0667736753821373 0.34414127469062805 2.054574728012085 151 166 161
-0.6090150475502014 -0.6303840279579163 4.273789882659912 181 186 184
0.5128920078277588 -0.061324045062065125 2.2299652099609375 116 131 125
0.2956521511077881 0.28260868787765503 1.7391303777694702 31 40 35
0.4673539400100708 -0.39587628841400146 2.199312686920166 170 185 180
0.19158576428890228 0.352103590965271 2.071197509765625 130 149 147
0.04571428894996643 -0.20571430027484894 2.2857143878936768 68 80 76
0.3522546589374542 -0.4371352791786194 1.6976127624511719 119 124 122
0.005609114654362202 -0.07852760702371597 2.2436459064483643 112 125 120
0.6942372918128967 -0.3905084729194641 2.1694915294647217 165 179 174
-0.4076712429523468 0.3199999928474426 1.7534246444702148 128 121 97
0.5217692852020264 -0.044405899941921234 2.220294952392578 46 69 62
0.6001500487327576 0.5617404580116272 1.9204801321029663 156 180 182
0.27923211455345154 -0.39092496037483215 2.2338569164276123 201 217 217
0.7739534974098206 0.17860464751720428 1.9844961166381836 224 246 254
-0.21830281615257263 0.1970049887895584 2.1297836303710938 176 184 181
0.0644836276769638 0.0752309039235115 2.149454355239868 206 219 217
-0.4203612208366394 0.294252872467041 2.101806163787842 147 148 149
0.6246246099472046 0.5669670104980469 1.921921968460083 118 143 139
-0.13876843452453613 -0.027753686532378197 2.220294952392578 131 145 145
-0.3229604661464691 0.22607232630252838 2.1530697345733643 126 141 136
-0.35864245891571045 0.495027631521225 2.0205209255218506 116 132 122
0.0533333346247673 0.13333334028720856 2.133333444595337 170 186 188
0.15578947961330414 0.44631579518318176 1.6842105388641357 8 18 11
0.2636871337890625 0.34860333800315857 1.7877094745635986 27 38 31
0.64000004529953 0.1600000113248825 2.133333444595337 164 183 181
-0.7084870934486389 -0.48019683361053467 3.148831605911255 174 174 174
0.4309597313404083 0.4904024600982666 1.98142409324646 106 132 131
-0.39676550030708313 0.34501346945762634 1.725067377090454 128 120 93
-0.4209105968475342 0.1834738552570343 2.1585159301757812 246 246 245
-0.03961096331477165 -0.13015030324459076 2.2634835243225098 132 139 132
-0.047020405530929565 -0.4231836497783661 2.0897958278656006 145 146 141
0.35672128200531006 0.22032785415649414 2.098360538482666 181 196 202
-0.8500000238418579 -0.5699999928474426 4.0 156 157 151
0.2528533637523651 -0.14609305560588837 2.2475855350494385 115 126 120
0.12667813897132874 -0.04406196251511574 2.2030980587005615 124 140 140
0.6585366129875183 0.497560977935791 1.9512195587158203 154 172 175
-0.0818660631775856 -0.44785553216934204 1.9262603521347046 136 138 128
0.26829269528388977 -0.44878050684928894 1.9512195587158203 127 131 124
-0.023551058024168015 -0.3238270580768585 2.3551058769226074 177 189 185
0.2563728988170624 0.4055353105068207 1.8645302057266235 13 24 20
0.5555997490882874 -0.436845600605011 1.6964877843856812 124 130 128
-0.14983277022838593 0.15518394112586975 2.140468120574951 172 186 181
0.14065934717655182 -0.3340659439563751 2.344322443008423 175 191 186
-0.43853461742401123 0.19972863793373108 1.736770749092102 167 147 120
0.10397112369537354 -0.27148014307022095 2.310469388961792 174 187 182
-0.19031435251235962 0.059813082218170166 2.175021171569824 159 168 165
-0.4444444477558136 0.03999999910593033 1.7777777910232544 187 159 137
-0.3707317113876343 -0.1902438998222351 1.9512195587158203 171 167 165
-0.07222222536802292 -0.05000000074505806 2.222222328186035 143 156 154
0.21098899841308594 0.0811496153473854 2.163989782333374 189 200 206
0.3494736850261688 0.4000000059604645 1.6842105388641357 116 130 122
0.28143322467803955 -0.4169381260871887 2.084690570831299 138 151 144
0.4717325270175934 0.5446808338165283 1.9452887773513794 51 66 61
-0.470287561416626 -0.1175718903541565 2.0447285175323486 176 154 133
0.1698739230632782 0.4968812167644501 1.6987391710281372 6 17 11
0.5889893174171448 0.27871814370155334 2.1035332679748535 186 214 226
-0.5076923370361328 -0.12820513546466827 2.0512821674346924 195 165 147
0.18806244432926178 -0.3114784061908722 2.350780487060547 170 185 180
0.07080850750207901 0.032680850476026535 2.1787233352661133 45 54 53
0.6121739149093628 0.22260870039463043 1.7123745679855347 23 33 31
0.5914893746376038 0.21276596188545227 1.7021276950836182 26 31 30
0.5245901942253113 -0.011044004000723362 2.208800792694092 56 71 66
-0.034163698554039 -0.136654794216156 2.2775800228118896 128 135 126
0.0 0.5080155730247498 1.9922178983688354 130 147 146
-0.09226100146770477 0.568133533000946 1.942336916923523 154 174 167
0.3388235569000244 0.11831933259963989 2.1512606143951416 188 201 207
-0.11851851642131805 0.32463768124580383 2.0611915588378906 183 198 196
0.6378737092018127 0.1700996607542038 2.1262457370758057 164 183 181
0.4839422106742859 0.01631265878677368 2.175021171569824 94 111 105
0.2588996887207031 0.30550163984298706 2.071197509765625 163 175 179
0.32842105627059937 0.3536842167377472 1.6842105388641357 61 73 63
0.7626942992210388 -0.19343696534633636 2.2107081413269043 194 208 212
0.17446808516979218 0.48085108399391174 1.7021276950836182 6 16 14
0.1863013654947281 0.027397260069847107 2.1917808055877686 170 185 188
0.5117889046669006 0.17411376535892487 2.1104698181152344 118 144 135
0.7677655816078186 -0.35164836049079895 2.344322443008423 152 165 161
0.323626846075058 -0.13391456007957458 2.2319092750549316 107 119 115
0.5481592416763306 0.5385424494743347 1.923365831375122 56 73 66
0.21778810024261475 0.4009280800819397 1.9798917770385742 12 23 19
-0.3717842400074005 0.23900416493415833 2.124481439590454 140 149 141
0.0404423363506794 0.3842022120952606 2.0221168994903564 159 176 177
0.46554362773895264 0.5292496085166931 1.9601837396621704 54 67 68
0.7211267948150635 -0.050704225897789 2.253521203994751 160 175 170
0.44207221269607544 -0.42700159549713135 2.0094192028045654 130 139 136
0.5897018909454346 -0.19656729698181152 2.312556505203247 143 157 152
0.6234592795372009 0.3944334089756012 1.6964877843856812 157 176 174
0.4425796568393707 0.5320901274681091 1.9891220331192017 92 119 120
-0.13617020845413208 -0.44741642475128174 1.9452887773513794 137 138 132
0.33263158798217773 0.3536842167377472 1.6842105388641357 46 59 49
0.01555915642529726 0.2593192756175995 2.074554204940796 191 200 197
-0.49803635478019714 0.004654545336961746 1.8618181943893433 215 175 152
0.2822774648666382 0.3387329578399658 2.052927017211914 27 34 36
0.031867220997810364 0.1168464794754982 2.124481439590454 167 181 182
-0.4041522443294525 0.06643598526716232 2.2145328521728516 162 163 160
-0.3713900148868561 0.3411605954170227 1.7273954153060913 245 245 245
0.22410424053668976 0.29185667634010315 2.084690570831299 189 205 206
-0.12780338525772095 0.550537645816803 1.9662058353424072 164 182 176
0.4138568043708801 -0.43356427550315857 1.9707467555999756 127 135 132
0.5728055238723755 0.0550774522125721 2.2030980587005615 179 201 212
0.6106686592102051 -0.4519909620285034 1.923365831375122 127 136 133
-0.10150250792503357 -0.411352276802063 2.136894941329956 152 153 149
-0.3903614580631256 -0.10602410137653351 1.9277108907699585 145 134 115
0.5388889312744141 -0.3888888955116272 2.222222328186035 171 186 183
0.21203137934207916 -0.13391456007957458 2.2319092750549316 105 113 108
0.48558422923088074 0.5098634362220764 1.942336916923523 68 87 84
1.8887217044830322 -1.3112781047821045 4.812029838562012 120 125 123
0.1708185076713562 -0.2106761485338211 2.2775800228118896 35 46 42
-0.6232209205627441 -0.23970036208629608 2.397003650665283 150 151 146
0.03527558967471123 -0.41826772689819336 2.0157480239868164 136 144 133
-0.005333333741873503 0.13866667449474335 2.133333444595337 143 154 152
0.5187841057777405 0.4040530025959015 1.9953234195709229 97 117 110
-0.40483298897743225 0.059132907539606094 1.8194741010665894 165 153 131
0.10591015964746475 -0.42868396639823914 2.017336368560791 138 139 133
-0.11008600890636444 0.45035186409950256 2.001563787460327 180 197 191
0.7386834621429443 -0.236609548330307 2.3083858489990234 143 157 152
-0.2945132851600647 -0.050973452627658844 2.265486717224121 129 143 138
0.46219199895858765 0.010875105857849121 2.175021171569824 76 87 83
-0.0042105261236429214 -0.4421052634716034 1.6842105388641357 129 130 124
0.03936731070280075 -0.08435852080583572 2.249560594558716 134 149 146
0.2627257704734802 0.2259441614151001 2.101806163787842 155 169 172
0.18436212837696075 0.2370370328426361 2.1069958209991455 147 161 161
-0.0277777798473835 -0.04444444552063942 2.222222328186035 136 150 151
0.7648780345916748 -0.06243902072310448 2.081300735473633 215 232 249
0.24810126423835754 0.5468354225158691 2.0253164768218994 85 90 86
-0.28495103120803833 -0.11967943608760834 2.2796082496643066 128 133 131
-0.40301162004470825 0.2453114241361618 1.7522244453430176 143 136 117
0.337321937084198 0.2370370477437973 1.823361873626709 32 43 39
0.6600897312164307 -0.24681615829467773 2.295964241027832 144 158 151
-0.3780040740966797 0.30848607420921326 1.7379497289657593 50 51 48
0.7557548880577087 -0.11958146840333939 1.9133034944534302 175 189 191
-0.026556018739938736 0.16995851695537567 2.124481439590454 143 160 160
-0.14686672389507294 -0.10167696326971054 2.259488105773926 125 136 132
-0.6047244071960449 -0.6551181077957153 5.039370059967041 173 179 177
0.7623111009597778 -0.1137777790427208 2.2755556106567383 148 163 160
-0.15623365342617035 -0.05021796002984047 2.2319092750549316 140 152 149
0.5010526180267334 -0.44631579518318176 1.6842105388641357 122 128 126
0.5966101884841919 -1.0214688777923584 3.615819215774536 117 122 118
0.7634907960891724 0.1383506804704666 2.0496397018432617 220 245 242
-0.39971286058425903 0.05513280630111694 1.8377602100372314 165 153 130
0.7491965889930725 -0.28890588879585266 1.958683967590332 154 169 164
0.5701996684074402 -0.4423963129520416 1.9662058353424072 127 138 134
0.25938326120376587 -0.2142731249332428 2.2555065155029297 56 70 65
0.6291331648826599 -0.263092041015625 2.28775691986084 142 155 150
0.20210526883602142 -0.4421052634716034 1.6842105388641357 120 127 121
0.6479668617248535 0.18058092892169952 2.124481439590454 163 183 181
-0.033391304314136505 -0.04452173784375191 2.2260868549346924 141 154 155
-0.9162995219230652 -0.6907488703727722 5.638766288757324 169 170 165
0.5617021322250366 -0.11347518116235733 2.269503593444824 153 171 167
-0.3858520984649658 0.4167202413082123 2.057877779006958 158 169 162
0.24303796887397766 0.07021096348762512 2.160337448120117 191 198 206
0.45039093494415283 -0.11676802486181259 2.2241528034210205 62 73 69
-0.37473684549331665 0.49263158440589905 1.6842105388641357 246 246 246
0.21368078887462616 0.29185667634010315 2.084690570831299 178 194 194
0.4166666865348816 -0.111111119389534 2.222222328186035 102 118 119
0.6043844819068909 0.16188868880271912 2.1585159301757812 168 192 194
-0.05156669765710831 -0.22345568239688873 2.291853189468384 30 40 35
0.005709188058972359 -0.3996431529521942 2.283675193786621 201 211 209
0.7029876708984375 -0.056239016354084015 2.249560594558716 160 175 170
0.06394670903682709 0.11723563075065613 2.131556987762451 214 230 229
0.33080634474754333 0.2822880744934082 1.7643004655838013 34 43 40
0.1038118377327919 0.2283860445022583 2.0762367248535156 178 185 188
0.6097561120986938 0.497560977935791 1.9512195587158203 163 187 189
-0.2388889044523239 0.0 2.222222328186035 114 126 122
0.49268293380737305 0.49268293380737305 1.9512195587158203 76 95 92
-0.20016460120677948 -0.4319341480731964 2.1069958209991455 148 149 145
0.6824373006820679 -0.2637993097305298 2.2939069271087646 145 156 152
0.3083685338497162 0.05409974604845047 2.163989782333374 139 156 158
0.713689923286438 -0.3655484914779663 2.3209428787231445 158 169 165
0.6138543486595154 -0.14777974784374237 2.2735345363616943 146 161 156
-0.08014311641454697 -0.22325581312179565 2.2898032665252686 67 73 70
-0.44681721925735474 0.17960301041603088 1.7522244453430176 180 159 132
0.4355762004852295 -0.43062645196914673 1.9798917770385742 128 137 134
0.7611894011497498 -0.015023474581539631 2.0031299591064453 204 227 243
0.0404423363506794 -0.41958925127983093 2.0221168994903564 137 145 132
0.7562701106071472 -0.3241157531738281 2.057877779006958 155 170 165
-0.1895916759967804 0.36381104588508606 2.0496397018432617 164 179 174
0.12438163161277771 -0.3674911856651306 2.261484146118164 215 239 235
-0.3772270679473877 0.3772270679473877 1.7146685123443604 231 233 232
-0.42732158303260803 -0.07858787477016449 1.9646968841552734 175 156 141
0.6628780961036682 -0.3461044728755951 2.346471071243286 142 155 150
-0.6239554286003113 -0.21392758190631866 2.3769731521606445 154 155 152
-0.4770987033843994 0.2793821394443512 1.719274640083313 180 154 123
0.5591695308685303 0.044290658086538315 2.2145328521728516 200 225 240
-0.4191693365573883 0.44472846388816833 2.0447285175323486 67 72 68
0.7703214883804321 -0.07914261519908905 2.1104698181152344 217 234 245
-0.27557116746902466 -0.04499121010303497 2.249560594558716 126 139 136
-0.3957894742488861 0.47578948736190796 1.6842105388641357 95 90 69
0.21408452093601227 -0.22535212337970734 2.253521203994751 117 131 125
0.38904109597206116 0.0 2.1917808055877686 121 142 146
0.44556963443756104 0.3544303774833679 2.0253164768218994 62 80 82
0.489767849445343 -0.060533106327056885 2.2012038230895996 110 127 120
0.16623376309871674 0.39711400866508484 1.8470418453216553 15 24 21
-0.39277979731559753 -0.39277979731559753 2.310469388961792 193 193 193
-0.21753130853176117 -0.18318426609039307 2.2898032665252686 106 110 103
-0.030379747971892357 0.4253164529800415 2.0253164768218994 148 167 164
-0.33202147483825684 -0.1030411496758461 2.2898032665252686 105 113 110
-0.12997563183307648 0.29634442925453186 2.0796101093292236 176 190 185
-0.3447436988353729 -0.016681145876646042 2.2241528034210205 104 115 111
0.5657142996788025 -0.24571429193019867 2.2857143878936768 136 150 142
-0.2517154812812805 0.22493723034858704 2.142259359359741 181 189 186
-0.009876543655991554 0.5679012537002563 1.9753086566925049 125 145 138
0.08759623765945435 0.0 2.189905881881714 115 132 133
-0.35147538781166077 0.3252458870410919 2.098360538482666 108 121 114
-0.048525694757699966 0.10783487558364868 2.1566975116729736 153 165 161
0.6568421125411987 0.28631579875946045 1.6842105388641357 22 27 24
0.7666667103767395 -0.32777780294418335 2.222222328186035 174 189 187
0.21212612092494965 0.37251415848731995 2.0695230960845947 164 181 183
0.2878306806087494 -0.1467372179031372 2.257495641708374 106 117 111
0.659429669380188 -0.3238270580768585 2.3551058769226074 142 155 150
-0.18994228541851044 0.2532563805580139 2.1104698181152344 164 175 171
0.08493364602327347 0.4196721315383911 1.9984387159347534 190 202 200
-0.6347107291221619 -0.19981634616851807 2.350780487060547 171 181 179
-0.09870129823684692 0.25974026322364807 2.0779221057891846 182 195 191
0.27487844228744507 0.2593192756175995 2.074554204940796 141 157 157
0.7717801332473755 0.16275635361671448 2.1000819206237793 185 208 214
0.6147368550300598 0.3115789592266083 1.6842105388641357 13 34 35
0.15171203017234802 -0.3652326464653015 2.2475855350494385 212 237 233
0.06315789371728897 -0.4421052634716034 1.6842105388641357 126 127 121
0.7569892406463623 -0.05407065898180008 1.9662058353424072 196 214 226
0.4399999976158142 0.5049999952316284 2.0 97 126 127
-0.01714285835623741 -0.23428572714328766 2.2857143878936768 193 210 204
0.4987013041973114 -0.41558441519737244 2.0779221057891846 140 149 146
-0.35147538781166077 0.35672128200531006 2.098360538482666 104 118 112
-0.4031943082809448 -0.05110913887619972 2.271517276763916 82 86 82
0.5540298223495483 0.5540298223495483 1.9104477167129517 33 48 44
0.6864352822303772 0.4391166865825653 2.0189273357391357 158 176 178
-0.34890154004096985 0.39056140184402466 2.082994222640991 129 144 139
-0.41767504811286926 0.20883752405643463 1.7403126955032349 165 154 128
0.7264291048049927 -0.3923777639865875 2.1209609508514404 165 179 174
0.05152057483792305 -0.22898033261299133 2.2898032665252686 107 122 117
0.5589041113853455 0.10410958528518677 2.1917808055877686 218 243 249
-0.4073921740055084 0.24093085527420044 1.7522244453430176 149 139 122
0.6105263233184814 0.1894736886024475 1.6842105388641357 129 154 149
0.5612508654594421 0.26539769768714905 1.7403126955032349 169 186 188
-0.3157709240913391 -0.033832598477602005 2.2555065155029297 121 132 129
0.33263158798217773 0.43368420004844666 1.6842105388641357 52 59 53
0.48082903027534485 -0.09395509958267212 2.2107081413269043 94 109 104
-0.3711395859718323 0.3366149663925171 1.7262306213378906 241 241 241
0.046116892248392105 0.33819055557250977 2.0496397018432617 171 186 189
-0.06197183206677437 -0.10704226046800613 2.253521203994751 140 151 147
0.08311688154935837 0.2545454502105713 2.0779221057891846 182 191 191
0.1453322023153305 0.08074011653661728 2.1530697345733643 143 156 153
0.0 0.48500001430511475 2.0 124 142 138
0.4191150367259979 -0.19256636500358582 2.265486717224121 43 51 48
0.052268605679273605 -0.36588022112846375 2.3230490684509277 207 232 228
0.27254751324653625 0.5645627379417419 1.946768045425415 174 192 196
0.28086331486701965 0.423597127199173 1.8417266607284546 12 23 20
-0.3968000113964081 0.40106669068336487 1.7066667079925537 116 107 86
-0.3259762227535248 0.179286926984787 2.1731748580932617 123 138 133
0.14507409930229187 -0.10601568967103958 2.2319092750549316 128 139 135
0.2716180384159088 0.39045092463493347 1.6976127624511719 14 23 19
-0.3034716248512268 0.17883150279521942 2.167654514312744 152 166 161
0.19174090027809143 0.3368421196937561 2.0728745460510254 133 152 150
0.5328609347343445 -0.11904339492321014 2.26749324798584 185 202 211
0.13597069680690765 0.3985348045825958 1.8754578828811646 136 155 153
-0.1582852303981781 0.23742786049842834 2.1104698181152344 164 176 172
-0.681840181350708 -0.4726392328739166 3.099273681640625 174 174 174
-0.6720390915870667 -0.5157509446144104 3.125763177871704 176 176 176
-0.0452696718275547 -0.13015030324459076 2.2634835243225098 135 142 135
-0.385185182094574 0.4317460358142853 1.6931216716766357 57 55 48
-0.44365134835243225 0.12299244850873947 1.7570350170135498 180 159 133
0.5400630831718445 0.35331228375434875 2.0189273357391357 103 125 120
0.12151899188756943 0.30379748344421387 2.0253164768218994 132 146 146
-0.5722627639770508 -0.5138685703277588 4.67153263092041 180 185 183
-0.3753526508808136 -0.057015590369701385 1.9005197286605835 76 75 74
0.6445229649543762 -0.11307420581579208 2.261484146118164 149 164 159
0.15843960642814636 -0.4465116262435913 1.9204801321029663 127 133 123
0.2956521511077881 -0.27826085686683655 2.318840503692627 170 185 180
-0.37674421072006226 0.023255813866853714 1.860465168952942 54 54 52
0.6357894539833069 0.41684210300445557 1.6842105388641357 153 172 171
-0.3664730489253998 0.24431537091732025 2.124481439590454 123 133 126
0.48355555534362793 -0.3811555504798889 2.2755556106567383 189 205 205
0.7012891173362732 -0.31233882904052734 2.357274293899536 144 155 151
-0.512372612953186 0.3260553181171417 1.863173246383667 167 139 112
0.08785174787044525 0.44804394245147705 1.7570350170135498 39 46 41
0.44466501474380493 0.17468981444835663 2.117452383041382 75 93 96
0.7154929637908936 -0.056338030844926834 2.253521203994751 161 176 171
0.500719428062439 -0.25323742628097534 2.3021583557128906 138 152 147
0.49484536051750183 -0.021993126720190048 2.199312686920166 115 130 125
0.6062602996826172 0.2688632607460022 2.108731508255005 174 197 207
0.7689922451972961 0.10914728790521622 1.9844961166381836 214 242 254
0.15064935386180878 0.2545454502105713 2.0779221057891846 137 152 148
-0.10393162816762924 0.03282051533460617 2.1880342960357666 134 147 147
0.3362802267074585 0.1494578719139099 2.1351125240325928 186 199 201
0.04956970736384392 -0.02203098125755787 2.2030980587005615 136 152 150
0.4097244441509247 -0.41491085290908813 2.074554204940796 136 147 143
0.41100916266441345 -0.346422016620636 2.348623752593994 164 181 175
0.34966886043548584 -0.4344370663166046 2.1192052364349365 132 143 138
-0.4909825026988983 -0.5426648855209351 3.445491313934326 204 214 215
0.7765266299247742 0.10150674730539322 2.030134916305542 229 248 247
0.5562822818756104 0.0550774522125721 2.2030980587005615 206 230 243
-0.031219512224197388 -0.5432195067405701 2.497560977935791 137 139 129
0.30843374133110046 -0.39655765891075134 2.2030980587005615 180 196 192
0.3410526216030121 0.3536842167377472 1.6842105388641357 49 61 50
0.14521008729934692 0.10218487679958344 2.1512606143951416 139 154 149
